//X;Y;Z
477907.22899628;6771730.02499390;256.95001221
478146.71679688;6771646.04000854;256.85400391
478138.48980713;6771689.57199097;257.37701416
478105.10649872;6771689.72198486;222.29299927
478116.97879791;6771733.24600220;257.55899048
477945.17499924;6771734.84500122;257.68099976
477945.86700058;6771734.47000122;257.35900879
477943.70199966;6771735.23098755;257.27600098
478134.75909424;6771721.53900146;256.83401489
478135.11070251;6771719.62399292;257.42898560
478134.91700745;6771713.41101074;257.39001465
477951.35900116;6771735.43200684;257.28900146
477950.34799957;6771735.40899658;257.66000366
477942.73799896;6771735.48300171;257.60198975
477938.42900085;6771735.36898804;257.48901367
477937.48799896;6771734.58200073;256.87399292
477936.07099915;6771734.82101440;257.22601318
477931.11199951;6771733.70999146;257.04098511
477927.53700256;6771732.86499023;257.28100586
477926.14199829;6771732.94100952;257.70901489
478091.65270233;6771734.21398926;257.53799438
477925.38700104;6771732.42700195;257.53100586
478138.93319702;6771683.89801025;257.32101440
477923.83399963;6771732.15100098;257.15600586
478088.51300049;6771733.67999268;257.20700073
478045.16299820;6771735.73300171;257.33898926
478043.29499817;6771735.56600952;257.31600952
477894.29499817;6771726.81799316;257.18499756
478140.13360596;6771682.20199585;257.28601074
477892.87100220;6771725.97100830;257.22500610
478040.12099838;6771735.77200317;257.31900024
477892.11699677;6771726.30499268;257.51699829
478080.29199982;6771734.38699341;257.45800781
477999.40600002;6771734.91101074;257.18200684
478145.32279968;6771637.87500000;257.76699829
478145.18589783;6771637.17898560;257.33499146
478029.46800041;6771735.61700439;257.31600952
477992.22599983;6771735.62899780;257.34201050
478144.62339783;6771632.44100952;257.29199219
477886.68900299;6771723.60800171;257.54598999
477989.40200043;6771735.42700195;257.27700806
478144.37860107;6771632.13598633;256.98599243
478105.71559906;6771690.35101318;222.00900269
478028.27799988;6771735.93200684;257.26998901
477882.12000275;6771723.40301514;257.36199951
477986.16300011;6771735.85101318;257.35598755
478026.25099945;6771735.90701294;257.07199097
477983.66500092;6771735.96899414;257.32101440
478025.03599930;6771735.95401001;257.27398682
478023.79899979;6771735.91400146;257.21200562
477981.25000000;6771736.27899170;257.58700562
478118.48290253;6771733.14801025;257.56698608
477978.57099915;6771736.00399780;257.52600098
478106.61380005;6771671.39099121;222.44400024
478142.69639587;6771663.48400879;257.49798584
477872.83599854;6771720.99499512;257.35198975
478018.96199989;6771736.31201172;257.56600952
478134.89909363;6771724.41500854;257.51800537
477870.30999756;6771719.31900024;257.18200684
478136.58929443;6771702.92800903;257.27099609
478015.10799980;6771734.76000977;257.45300293
478111.83509827;6771733.64498901;257.27899170
478136.78080750;6771701.96701050;257.05599976
478013.74300003;6771734.20098877;257.36801147
478143.86929321;6771654.16900635;257.63800049
478012.65699959;6771734.09201050;256.93200684
478108.94370270;6771732.87100220;257.06399536
478009.91399956;6771733.57800293;257.04598999
478106.29170227;6771690.89001465;222.59199524
477965.93999863;6771736.75799561;257.24899292
477856.14799500;6771717.65899658;257.40100098
478051.22600174;6771734.47799683;257.05200195
478145.03340149;6771648.87100220;257.01000977
478145.58169556;6771648.23098755;257.16299438
478050.43399811;6771734.45700073;257.25500488
478104.25019836;6771733.47900391;257.26501465
478048.23500061;6771734.73699951;256.86700439
477906.06700134;6771730.02200317;257.30300903
478003.60100007;6771733.95999146;256.90600586
478145.09550476;6771640.90200806;257.12100220
478044.65999985;6771734.98999023;257.14199829
478089.13369751;6771733.55999756;256.94699097
478040.51900101;6771735.38400269;256.68701172
478031.00000000;6771735.43399048;256.78399658
477998.67799997;6771734.66198730;257.16900635
477996.63800001;6771735.20901489;256.79501343
478024.47599983;6771735.63299561;256.90200806
477953.79199982;6771735.66198730;256.83200073
477881.02300262;6771722.37701416;256.53399658
477902.84899902;6771727.97500610;256.39001465
477879.71199799;6771722.44299316;256.83300781
478138.93589783;6771683.27899170;256.56298828
477877.68199921;6771721.95700073;256.79998779
478118.77880096;6771732.64099121;256.12799072
478026.19300079;6771735.29299927;256.79800415
477873.43299866;6771720.63699341;256.64801025
478025.35799980;6771735.48001099;256.91299438
477978.32799911;6771735.61099243;257.08200073
477919.03900146;6771731.17800903;256.88800049
478055.80699921;6771734.87298584;256.91198730
478112.51820374;6771733.22000122;256.94601440
478135.62469482;6771707.93301392;256.65600586
477915.79199982;6771730.75601196;256.67800903
478142.04730225;6771664.96798706;256.54400635
478052.91899872;6771734.63800049;256.75100708
478142.47520447;6771662.46600342;257.23599243
477969.15900040;6771735.46200562;256.83599854
478046.91999817;6771735.04501343;257.15200806
477909.63099670;6771730.68200684;256.81500244
477846.82699585;6771713.39300537;257.20901489
478136.74349976;6771696.28698730;256.50900269
478094.38210297;6771734.07800293;257.03601074
477961.13800049;6771735.97198486;256.89999390
477959.79600143;6771735.77899170;256.82699585
477841.26400757;6771713.31399536;257.46200562
478139.99079895;6771681.16299438;257.00399780
478140.00709534;6771679.44500732;257.36300659
478009.05000019;6771711.96899414;222.39500427
478092.38310242;6771733.94900513;257.02099609
478139.18940735;6771677.74301147;256.71301270
478144.69050598;6771636.71701050;257.02099609
478144.33389282;6771635.52700806;257.09899902
478139.46479797;6771673.64599609;256.91400146
478087.10430145;6771733.49899292;256.79199219
477940.25600052;6771710.36898804;222.42399597
478144.19099426;6771632.83999634;257.21600342
478086.24440002;6771733.60900879;257.04199219
478140.99780273;6771671.94500732;257.26300049
478085.27420044;6771733.90798950;257.04400635
478141.27859497;6771670.44900513;256.98498535
478084.16529846;6771734.04901123;257.37799072
478144.51890564;6771629.30300903;256.68899536
477884.53199768;6771723.14498901;256.77899170
478009.67199993;6771711.76901245;222.34300232
478141.79559326;6771665.48599243;256.84298706
478142.47779846;6771664.93899536;256.90600586
477881.51000214;6771722.99600220;256.84298706
478078.19190216;6771734.05999756;257.02999878
478142.37510681;6771663.32699585;256.80200195
478142.68389893;6771661.56698608;257.08300781
477878.63500214;6771722.12899780;256.98001099
478142.31889343;6771660.11499023;256.64300537
478002.70000005;6771733.86401367;257.00698853
478002.09500003;6771734.28799438;257.18798828
477997.62299991;6771735.25799561;257.15701294
478072.92449951;6771734.29299927;257.31399536
478143.79870605;6771656.71899414;257.31298828
478143.35299683;6771656.05801392;256.95498657
478052.08000183;6771709.34799194;221.86500549
478072.19879913;6771734.28799438;257.44799805
477994.15100002;6771735.54901123;257.01199341
477957.17900085;6771736.05700684;257.08801270
477993.12799978;6771735.71499634;256.71600342
478070.38439941;6771734.20300293;257.00399780
477955.10599899;6771736.00000000;256.83999634
477900.01499939;6771727.31500244;257.25500488
478069.29900360;6771734.07000732;257.11300659
477953.07799911;6771735.50000000;256.76400757
478067.81150055;6771734.16299438;257.24398804
477952.30599976;6771735.56500244;256.62500000
477872.45300293;6771720.48001099;256.70901489
477950.75600052;6771735.02899170;256.87899780
477871.47900391;6771719.88000488;256.63800049
478036.86700058;6771734.65798950;256.97198486
478143.40130615;6771651.67700195;256.82901001
478035.88199997;6771735.05801392;257.04098511
477941.63399887;6771735.26599121;256.61199951
478066.27010345;6771734.16900635;256.81698608
478035.23899841;6771735.12399292;257.47000122
478033.43299866;6771735.56298828;257.39199829
477891.65100098;6771725.56799316;257.18301392
477980.39599991;6771735.95599365;257.02301025
478032.44699860;6771735.48699951;257.00601196
478029.71100044;6771735.18301392;256.80999756
477890.08999634;6771725.04501343;256.77499390
478029.16300011;6771735.32998657;256.88101196
477889.39499664;6771724.74899292;257.36999512
477934.86900330;6771734.37298584;256.99899292
478143.82200623;6771650.79000854;257.15200806
478062.19229889;6771733.92599487;257.04598999
477887.42700195;6771723.84201050;257.08700562
477886.04900360;6771723.41000366;256.86300659
477865.59300232;6771718.75000000;256.92898560
477883.60199738;6771723.67098999;257.18399048
478022.47200012;6771735.69500732;256.80801392
478135.41850281;6771709.11199951;256.73999023
478134.33039856;6771724.13500977;256.72900391
477929.35600281;6771733.27999878;257.07699585
478058.65900040;6771734.29299927;257.14898682
478059.44400024;6771733.85900879;256.96200562
478115.79910278;6771732.90701294;257.07901001
478018.20299911;6771735.83099365;257.02099609
477975.42900085;6771735.71099854;257.21200562
477924.91500092;6771732.06399536;256.98599243
478057.32500076;6771734.44900513;257.05499268
478114.22669983;6771733.20800781;256.76501465
477974.22400093;6771735.75500488;256.91198730
478016.09300041;6771734.93099976;256.55599976
478136.79949951;6771706.18200684;257.15600586
478054.50999832;6771735.31100464;257.32998657
478136.64419556;6771703.73999023;257.26901245
477920.25800323;6771731.09100342;256.73999023
478011.57299995;6771734.04998779;257.09298706
478009.11900043;6771733.69699097;256.96499634
478103.38600159;6771733.60998535;257.17800903
478137.20239258;6771700.85501099;257.55999756
477966.83499908;6771736.18798828;256.91699219
477914.63400269;6771730.95901489;257.26800537
478136.71820068;6771699.25900269;256.80099487
478008.24499989;6771734.12500000;257.21798706
477964.79700089;6771736.70001221;257.41500854
477843.27400208;6771713.07598877;257.10101318
477910.18699646;6771730.57901001;257.06500244
478137.22500610;6771692.90600586;256.94699097
477960.49300003;6771735.84201050;257.13500977
478045.71599960;6771734.91799927;256.92498779
477840.32299805;6771713.10998535;257.09799194
477958.69200134;6771735.75000000;257.15499878
478138.08569336;6771690.73599243;256.94198608
477827.27299500;6771710.35400391;256.75601196
477792.81199646;6771672.55700684;256.61801147
478111.36820221;6771657.01501465;222.52400208
478134.18220520;6771727.27600098;256.55700684
478079.14669800;6771734.14599609;256.85900879
478010.60400009;6771733.81900024;256.10800171
477939.75299835;6771735.30899048;256.65499878
477902.09600067;6771727.49600220;256.84100342
477847.22999573;6771712.88500977;256.82800293
478055.26499939;6771710.11300659;222.14700317
477862.48300171;6771717.31799316;256.42199707
478056.71699905;6771710.20498657;222.53500366
477837.89700317;6771712.51098633;256.77700806
477830.60800171;6771711.50299072;256.17599487
477825.76499939;6771709.59201050;256.80499268
478110.57209778;6771644.68600464;222.30900574
477821.75900269;6771707.60101318;257.08898926
477816.90299988;6771705.34899902;256.45098877
477814.33500671;6771704.16500854;256.94500732
478145.97189331;6771625.48498535;256.93499756
478145.84049988;6771624.92401123;256.70199585
478145.65020752;6771623.17098999;256.01501465
478146.39630127;6771621.52999878;256.40600586
478082.73860168;6771734.10000610;256.75299072
478114.80339813;6771732.98199463;256.63800049
477949.52600098;6771734.88500977;256.14401245
477796.63699341;6771679.29800415;256.22601318
477795.25300598;6771676.93600464;256.97698975
477860.19799805;6771717.27200317;256.18600464
478057.56999969;6771710.30801392;222.19599915
477858.97099304;6771717.10400391;256.95498657
477858.09300232;6771716.98498535;256.84698486
477852.50799561;6771715.03500366;256.81900024
477851.23599243;6771714.46099854;256.69299316
477849.28999329;6771713.17401123;256.63101196
477847.94500732;6771712.53698730;256.51599121
477834.26699829;6771710.91799927;257.00201416
477833.16700745;6771710.74798584;256.87600708
477829.47799683;6771711.65399170;256.85998535
477828.58099365;6771711.06399536;256.64498901
477820.42999268;6771706.76998901;257.30801392
477819.90100098;6771706.49398804;256.54400635
477813.18600464;6771703.66699219;256.39099121
477812.03100586;6771703.64599609;256.45001221
477807.78999329;6771702.13299561;256.67800903
477806.82800293;6771701.43701172;256.82998657
477804.12199402;6771696.31100464;256.34600830
478111.02420044;6771646.58999634;222.22599792
478025.62000084;6771712.59201050;222.40100098
477800.33299255;6771689.79501343;256.70300293
478127.00000000;6771733.09799194;256.29598999
477799.19400024;6771685.79199219;256.69299316
478124.24539948;6771733.02899170;256.39099121
478121.98239899;6771732.89700317;256.14898682
478145.37190247;6771629.09201050;256.98901367
478145.65620422;6771628.33401489;256.73400879
478145.78010559;6771627.86700439;257.04699707
477796.07099915;6771678.30300903;256.54400635
478119.84200287;6771733.00201416;257.07501221
478132.86349487;6771731.05398560;257.01699829
478146.35009766;6771623.69699097;256.63400269
478146.11230469;6771622.57598877;256.66400146
478102.41690063;6771733.73999023;256.73498535
478101.16899872;6771733.65701294;256.37799072
478099.49749756;6771733.54598999;257.44299316
478098.62359619;6771733.24700928;256.43200684
477947.76399994;6771734.83999634;256.85400391
478135.03430176;6771720.54800415;257.00900269
478134.90669250;6771718.91299438;256.92098999
477944.80099869;6771735.04199219;257.00799561
478135.36430359;6771716.31100464;256.60000610
478134.87680054;6771714.77899170;256.85998535
478103.37870026;6771702.92898560;222.55000305
478135.19009399;6771713.05599976;256.48400879
478135.44709778;6771711.54199219;256.92300415
478104.30750275;6771701.34399414;222.21299744
478072.14880371;6771733.85998535;256.77099609
478033.31000137;6771735.08099365;256.55099487
478064.44989777;6771733.70199585;256.36801147
477932.95400238;6771733.85900879;256.88400269
478059.89799881;6771733.77700806;256.52099609
478030.90800095;6771734.49301147;256.50601196
478106.19819641;6771733.57501221;257.23098755
477896.13700104;6771727.05300903;256.95098877
477895.18699646;6771727.15301514;257.05398560
477992.61299992;6771711.84899902;222.69700623
478139.57400513;6771678.87399292;256.82400513
478063.40829849;6771710.15100098;222.70199585
478026.34900093;6771734.89498901;256.78100586
477987.08800030;6771735.44000244;256.92001343
478138.83000183;6771677.13900757;256.41400146
478023.72800064;6771735.23999023;256.87899780
477982.77599907;6771735.60000610;256.70800781
478027.31100082;6771712.82901001;222.81500244
478048.72999954;6771734.63800049;256.45098877
477914.37200165;6771730.44000244;256.75500488
477912.79299927;6771729.69100952;256.21499634
477865.99000549;6771718.29400635;256.35998535
478136.39179993;6771704.65200806;256.48199463
478019.74799919;6771735.83401489;256.79400635
478136.34429932;6771702.55899048;256.56201172
477910.78700256;6771730.43399048;256.73999023
477968.39800072;6771735.57400513;256.73199463
478143.23469543;6771654.91699219;256.92700195
477967.65900040;6771735.40701294;256.68899536
478043.67399979;6771734.74798584;256.84698486
478136.69410706;6771697.30899048;256.63598633
477960.62699890;6771735.51400757;256.57598877
477993.76200008;6771735.05099487;256.49200439
477841.54600525;6771712.74398804;256.75900269
478117.10230255;6771732.83401489;256.51199341
478143.88729858;6771630.21200562;256.65499878
478112.13430023;6771733.39599609;256.57699585
478110.50599670;6771733.09899902;256.72799683
478109.73010254;6771733.01501465;256.53500366
478142.05580139;6771669.16400146;256.83099365
477862.50799561;6771717.74200439;256.86898804
477839.45500183;6771712.71600342;256.55300903
478139.44279480;6771675.28698730;257.04400635
478140.12919617;6771672.67800903;256.66699219
478140.75070190;6771671.63699341;256.62399292
478142.42790222;6771668.37500000;256.84698486
478144.39460754;6771634.07299805;256.67199707
478144.17080688;6771633.60699463;256.83898926
478107.04100037;6771733.03399658;256.79000854
477900.24600220;6771727.01901245;256.45800781
478095.02580261;6771733.88500977;256.76098633
477897.25099945;6771726.96099854;256.62298584
477896.54299927;6771726.56500244;256.72198486
478034.65900040;6771735.29901123;256.87100220
478070.98799896;6771733.79598999;256.78100586
478032.25699997;6771735.07299805;256.68798828
477876.38400269;6771721.13299561;256.82800293
478091.94370270;6771733.73599243;256.94699097
477890.78800201;6771725.15701294;256.81201172
477938.64300156;6771734.99600220;256.37399292
478067.01309967;6771734.02999878;257.11300659
477874.32499695;6771720.65600586;256.86801147
477936.49700165;6771734.57199097;256.29901123
477991.09500027;6771735.14599609;256.60598755
477990.04500008;6771735.19198608;256.75698853
478089.55860138;6771733.71798706;256.68899536
478061.54050064;6771733.97900391;256.95700073
478027.32500076;6771735.14599609;256.75601196
478144.12399292;6771650.16299438;256.84600830
478060.75699997;6771733.55300903;256.67498779
477932.09500122;6771733.57800293;256.38299561
478144.30790710;6771649.52801514;256.11700439
477926.99099731;6771732.57800293;256.98599243
478024.64100075;6771735.11801147;256.82901001
477870.58000183;6771719.40600586;256.52600098
477985.70199966;6771735.25100708;256.87399292
478136.35699463;6771706.95498657;256.98001099
477984.23700047;6771735.12100220;256.71701050
477921.52700043;6771731.67800903;257.00100708
478136.51989746;6771705.37200928;257.22698975
478146.04609680;6771644.55599976;256.91299438
477981.48500061;6771735.58700562;256.96499634
477972.18499947;6771735.26998901;256.41000366
478080.30549622;6771733.80599976;256.73098755
477918.23999786;6771731.19500732;256.90600586
477979.23699951;6771735.38900757;256.77801514
478136.44459534;6771698.46798706;256.39001465
478079.72789764;6771734.37399292;257.32101440
477977.26799965;6771735.66500854;257.09298706
478047.49200058;6771734.73098755;256.86401367
478137.13499451;6771695.27700806;256.82299805
478004.85099983;6771733.98400879;256.86199951
478136.84930420;6771694.34899902;256.92199707
477864.52600098;6771718.69500732;257.08499146
478076.64179993;6771733.98699951;256.68200684
478110.03759766;6771663.85998535;222.26699829
477863.11000061;6771718.12799072;256.98001099
478137.10169983;6771693.72198486;256.73901367
478041.15000153;6771735.70098877;257.00698853
477965.46900177;6771736.28900146;256.72100830
478144.98139954;6771640.09799194;256.86999512
477911.91300201;6771730.56100464;257.28698730
478109.53780365;6771664.44198608;222.09399414
478137.44169617;6771692.10598755;257.04901123
478144.26609802;6771641.97799683;256.83801270
478001.11500001;6771734.36499023;256.79998779
477856.95300293;6771716.83499146;256.41900635
477998.22500002;6771734.91198730;256.86499023
478073.58229828;6771734.37500000;256.57400513
478144.16709900;6771641.19400024;256.80899048
477856.24200439;6771717.15499878;256.86700439
478075.79360199;6771734.43301392;256.78399658
478138.49809265;6771689.23300171;256.73599243
477855.17399597;6771717.00500488;257.43499756
477916.97599792;6771704.84399414;222.08999634
478039.22200012;6771734.79199219;256.81298828
478138.64590454;6771684.08499146;256.46701050
477927.29299927;6771709.57501221;222.23199463
477846.43699646;6771712.89099121;256.72799683
478037.89899826;6771734.66598511;256.79800415
477957.94300079;6771735.61499023;256.90200806
478145.16259766;6771638.02398682;256.77899170
478139.48860168;6771682.73400879;256.92001343
477904.48999786;6771728.76998901;257.08499146
477844.56799316;6771712.50698853;257.03698730
478144.76510620;6771639.12100220;256.61801147
477956.42699814;6771735.53799438;256.54199219
477902.38099670;6771727.81298828;256.86099243
478144.44389343;6771637.26098633;256.75698853
478138.45809937;6771685.10501099;256.36898804
478144.30230713;6771636.73400879;256.63800049
478144.08450317;6771634.64001465;256.62600708
478142.55220032;6771661.02700806;256.57199097
477929.52500153;6771710.51000977;222.87800598
477987.59599972;6771734.83898926;256.60400391
477981.88899994;6771735.15100098;256.14401245
478032.47299957;6771734.52099609;256.41598511
477954.34899902;6771735.19699097;256.14700317
477973.26099968;6771735.49301147;256.37799072
478030.00600052;6771734.52899170;256.58801270
477939.35100174;6771734.82199097;255.96400452
478028.82900047;6771734.73001099;256.66598511
478067.23709869;6771733.55599976;256.51998901
478027.06200027;6771734.29400635;256.40499878
478026.42600060;6771734.58401489;256.38500977
477969.50399971;6771735.12799072;256.06298828
478025.54899979;6771734.88500977;256.57598877
477894.43000031;6771726.20700073;256.72799683
477893.63300323;6771725.80499268;256.65100098
478106.09190369;6771733.22799683;256.31600952
477917.46600342;6771730.90798950;256.33200073
477891.48200226;6771724.77200317;256.28201294
478023.06500053;6771734.89401245;256.50698853
477884.00700378;6771723.21301270;256.08599854
478094.60659790;6771733.31298828;256.20498657
477915.10700226;6771730.20001221;256.51000977
478021.05299950;6771735.52301025;256.71701050
478054.20700073;6771734.62100220;256.65899658
478139.84440613;6771672.78298950;256.13500977
478140.27459717;6771672.04901123;256.00201416
478049.66099930;6771734.50000000;256.37298584
478048.99599838;6771734.39498901;256.28698730
478136.23590088;6771696.64199829;255.89100647
478002.26200008;6771711.72900391;221.89100647
478041.90399933;6771735.12500000;256.61401367
477997.79800010;6771734.92300415;256.22500610
477855.70399475;6771716.49099731;256.26098633
477843.50300598;6771712.08801270;256.38500977
478139.14210510;6771682.38800049;256.29199219
477958.92800140;6771735.46301270;256.66699219
478144.02799988;6771635.44000244;255.85899353
477951.44800186;6771735.14300537;256.27499390
477950.27799988;6771734.85198975;256.42300415
478139.81840515;6771681.82299805;256.37600708
477933.99900055;6771733.90301514;256.55099487
478139.86979675;6771680.04598999;256.93099976
477926.01799774;6771732.03900146;256.89700317
477925.46900177;6771731.81298828;256.07400513
478139.29769897;6771674.46499634;256.94699097
477923.40899658;6771731.83499146;256.47299194
477899.55400085;6771726.81500244;256.65301514
477898.96199799;6771726.65600586;256.48300171
477898.24800110;6771727.10198975;256.74700928
477919.21099854;6771730.45599365;256.27700806
477918.33599854;6771730.53201294;256.45599365
478070.14440155;6771733.81799316;256.27600098
477942.58499908;6771711.79598999;222.27200317
478144.11289978;6771631.76000977;256.46499634
478031.64999962;6771734.76501465;256.51800537
478107.91909790;6771732.72299194;256.15200806
478068.30770111;6771733.47100830;256.27999878
478142.52929688;6771663.98300171;256.46499634
478065.56050110;6771733.59201050;256.16598511
478141.80430603;6771662.60400391;256.10699463
477886.78800201;6771723.22799683;256.71899414
477992.05600023;6771735.44000244;256.24200439
477888.41000366;6771723.91699219;256.51501465
477988.53299999;6771735.14199829;256.95401001
478142.71249390;6771658.90600586;256.53900146
478135.30769348;6771709.85299683;256.20098877
478142.98030090;6771658.07000732;256.39898682
478024.34000015;6771734.60501099;256.39801025
478093.91719818;6771733.91799927;256.65100098
478143.50239563;6771657.20001221;256.23999023
478092.74459839;6771733.68600464;256.82699585
478143.06770325;6771655.85198975;256.17401123
477877.09400177;6771721.06500244;256.35299683
478136.36079407;6771705.94198608;256.46301270
478058.22499847;6771733.57998657;256.33401489
478143.02659607;6771653.77801514;256.88900757
477875.29599762;6771721.27099609;256.88400269
478017.26899910;6771735.34298706;256.77398682
478055.47900009;6771734.10998535;256.14300537
478111.21450043;6771658.52801514;222.31199646
478136.76409912;6771699.92300415;256.65399170
478136.63040161;6771700.72198486;256.72000122
478051.88999939;6771734.56600952;256.74499512
478081.47840118;6771733.64001465;256.44400024
478007.19700003;6771734.16400146;256.75601196
478146.52360535;6771645.21499634;256.94799805
478050.91899872;6771734.44100952;256.53698730
477943.29299927;6771712.34899902;222.22099304
477869.22000122;6771719.09100342;257.03298950
477868.43899536;6771718.34500122;256.35400391
477971.41699982;6771735.77600098;257.10000610
477943.28599930;6771711.52398682;222.28300476
478046.65200043;6771734.41799927;256.69000244
478003.93499994;6771733.71899414;256.27499390
478045.85499954;6771734.41598511;256.33200073
478045.05199814;6771734.22198486;256.45599365
478077.44519806;6771734.15200806;256.76599121
477970.18799973;6771735.26199341;256.77499390
478137.43479919;6771691.46600342;256.76800537
477934.83799744;6771709.90600586;222.17100525
478074.91419983;6771734.19900513;256.29199219
478138.27589417;6771688.78900146;256.53900146
478138.42889404;6771687.98199463;256.56201172
478137.97300720;6771686.69900513;256.08999634
478037.19699860;6771734.59500122;256.13101196
477904.03700256;6771728.06698608;256.49798584
477955.56399918;6771735.67700195;256.52301025
478144.50090027;6771636.25299072;256.52200317
477884.66799927;6771723.03698730;255.82200623
478053.74100113;6771709.84100342;222.63200378
477831.87699890;6771710.88800049;255.58000183
477816.97000122;6771704.84698486;255.74899292
477932.90499878;6771711.00601196;222.33999634
478145.84249878;6771624.36099243;255.82400513
477797.08000183;6771681.27899170;256.11499023
477945.40499878;6771735.00900269;256.15701294
478134.62530518;6771720.73599243;255.76199341
478134.66140747;6771719.72601318;256.38000488
478136.12289429;6771703.33099365;256.08099365
477944.12900162;6771712.05200195;222.05900574
477861.04100037;6771717.02999878;256.11599731
477858.88699341;6771716.81698608;256.23098755
477851.62600708;6771714.31600952;256.04000854
477850.07099915;6771713.78799438;256.32199097
477846.77299500;6771712.54800415;256.45001221
477845.72599792;6771712.24099731;256.49099731
477840.19700623;6771712.48699951;256.18399048
477838.60200500;6771712.64898682;256.16699219
477835.22799683;6771710.94198608;256.72299194
477834.10299683;6771710.67700195;256.12899780
477831.81799316;6771711.45999146;256.51400757
477829.55999756;6771710.96499634;255.93099976
477822.61599731;6771707.67401123;256.23699951
477821.00300598;6771706.75399780;256.68499756
478145.10800171;6771648.71398926;255.95300293
478107.61959839;6771667.66799927;222.21800232
477921.11900330;6771705.45800781;222.20500183
477814.13099670;6771703.68600464;256.23999023
478145.60960388;6771648.14001465;256.34899902
478146.28680420;6771647.71899414;256.62100220
477808.85499573;6771702.39099121;256.56900024
478130.92790222;6771732.33599854;256.07998657
478129.82850647;6771732.64700317;256.19000244
478128.85110474;6771732.79699707;255.98399353
478145.47619629;6771627.70999146;256.32199097
478105.29519653;6771693.16500854;222.46499634
478144.04089355;6771629.60501099;256.01098633
478127.88200378;6771733.06201172;256.45599365
478145.03729248;6771628.47799683;256.39599609
477806.37199402;6771700.84298706;256.37200928
478145.81210327;6771627.18200684;256.87200928
478146.10740662;6771626.22299194;256.44400024
478126.41159821;6771732.88598633;256.07400513
478125.46399689;6771732.96398926;256.08801270
477901.08499908;6771727.04699707;256.51699829
478133.15789795;6771730.28100586;256.07901001
478132.22749329;6771731.58200073;256.03698730
478133.87170410;6771728.03500366;256.64300537
478134.34930420;6771726.50500488;256.76098633
477799.82400513;6771688.37799072;256.50799561
477799.40800476;6771687.33599854;256.81298828
478115.50489807;6771732.88299561;255.79299927
478134.58909607;6771714.81100464;255.34599304
477796.64399719;6771680.42700195;256.54000854
478111.46730042;6771733.22399902;256.16299438
478134.89669800;6771713.88699341;256.37899780
478103.60700226;6771733.60101318;256.18099976
477948.36399841;6771734.66000366;255.36399841
477791.14799500;6771669.07501221;256.44000244
477946.79100037;6771734.67898560;256.27301025
478135.20759583;6771710.75698853;256.51998901
478014.85700035;6771734.29000854;256.16198730
478013.48799992;6771734.08999634;256.28900146
477942.66899872;6771735.40399170;256.41198730
478012.34399986;6771734.00500488;255.78199768
477931.13800049;6771733.26300049;255.99200439
478134.21029663;6771722.70098877;256.54998779
478009.58199978;6771733.76599121;256.42401123
477930.29799652;6771733.44198608;256.66598511
477928.20200348;6771732.92999268;256.33300781
477887.40299988;6771722.90701294;256.32199097
477881.02600098;6771721.76699829;256.00900269
477879.22699738;6771721.72100830;256.31698608
478031.48399925;6771734.23599243;255.99600220
477875.07700348;6771720.20498657;256.30099487
477922.44100189;6771731.42800903;256.09899902
477975.12500000;6771735.22698975;256.21499634
478144.13870239;6771641.19299316;255.94099426
477911.99500275;6771729.45599365;256.35598755
477864.88900757;6771718.30899048;256.17498779
477909.31099701;6771729.98699951;256.18301392
478088.46410370;6771733.20901489;256.07598877
477966.61800003;6771735.11099243;256.32800293
477963.02299881;6771735.41400146;256.31900024
477961.64699936;6771735.44400024;256.41198730
477959.71699905;6771735.28201294;256.13800049
477935.60700226;6771710.17898560;222.19000244
477953.45999908;6771713.12200928;222.27299500
478138.02960205;6771685.05899048;255.86799622
477955.31100082;6771735.34500122;256.16598511
477828.64999390;6771710.20800781;256.12500000
478008.54399967;6771733.91500854;256.29199219
478096.90129852;6771733.58401489;256.73800659
477935.71600342;6771734.22100830;256.43600464
478004.72900009;6771733.95498657;255.48199463
478111.50939941;6771648.66400146;222.30099487
478084.41510010;6771733.34100342;255.99699402
478003.04600000;6771733.78500366;256.38900757
478002.11599994;6771734.21600342;256.17300415
477999.99500000;6771734.45700073;256.29400635
478135.90280151;6771706.89001465;256.28601074
477999.20800000;6771734.30999756;256.61999512
477998.57500005;6771734.49200439;256.51901245
478143.88090515;6771650.24398804;256.02499390
478106.12809753;6771696.09600830;222.33999634
478144.09869385;6771641.85198975;256.04299927
477983.11400032;6771734.91900635;256.21701050
478063.79890060;6771733.40899658;256.03799438
478063.01259995;6771733.66699219;256.29501343
478033.27399826;6771734.23400879;256.35598755
477978.40900040;6771735.37799072;256.54501343
477977.75399971;6771735.42999268;256.51998901
478059.17300034;6771733.80200195;256.52301025
477976.63199997;6771735.19299316;256.26300049
478056.81499863;6771733.95300293;256.32299805
477964.31399918;6771735.89300537;256.43798828
477880.21900177;6771721.57199097;256.14199829
478105.49759674;6771733.00900269;255.94799805
477878.45500183;6771721.45999146;255.88299561
478021.70400047;6771734.85198975;256.36700439
478020.28100014;6771735.17199707;256.39801025
478018.79999924;6771734.96701050;256.37600708
478141.90769958;6771665.16699219;256.10400391
477921.18399811;6771731.25100708;255.96299744
477965.53200150;6771735.41400146;256.23800659
478091.20780182;6771733.36898804;256.36099243
478047.58599854;6771734.40100098;256.15100098
477872.25299835;6771719.87399292;256.21499634
478136.82829285;6771694.27899170;256.23001099
478087.71340179;6771733.47399902;256.52301025
478137.30960083;6771692.92199707;256.02499390
478142.93069458;6771654.50100708;256.00900269
478137.44650269;6771692.13198853;256.51800537
478143.45970154;6771652.53399658;256.29299927
478085.72339630;6771733.36999512;256.30801392
478143.50819397;6771650.93798828;256.05899048
477937.36199951;6771709.89801025;222.31500244
477957.42900085;6771735.17599487;256.25399780
478077.27890015;6771733.83300781;255.81599426
477989.19200039;6771734.78500366;256.34399414
477922.69799805;6771706.06399536;222.31399536
478041.04100037;6771734.88800049;256.19000244
478042.70199966;6771734.73098755;256.48699951
477867.15800476;6771718.15100098;256.33801270
478146.19479370;6771643.76000977;256.93899536
478145.68359375;6771643.05801392;256.85299683
477908.43900299;6771729.81298828;256.68899536
477907.52100372;6771729.18798828;256.42498779
477980.33699989;6771735.45498657;256.05099487
478039.91299820;6771734.87600708;256.49200439
478038.87500000;6771734.46200562;256.09698486
478144.63630676;6771640.73800659;256.20901489
478138.68890381;6771682.91299438;255.96800232
477905.22499847;6771728.60998535;256.61801147
478144.52580261;6771638.85198975;255.89500427
478144.61909485;6771638.43399048;256.12600708
477986.82699966;6771734.69198608;256.33898926
478139.35539246;6771679.69500732;256.44699097
478035.29899979;6771734.60699463;256.26998901
478034.20000076;6771734.46398926;256.23800659
478144.22770691;6771632.73001099;256.17599487
478138.81430054;6771676.48901367;256.05300903
478138.88879395;6771675.82501221;256.45901489
477895.38400269;6771726.40701294;256.03799438
478139.55969238;6771673.44400024;256.02999878
477893.05400085;6771725.45800781;256.10900879
477892.33399963;6771725.14401245;256.52301025
478141.80180359;6771669.88800049;256.10900879
477987.17500019;6771712.38900757;222.32099915
477888.01899719;6771723.05200195;255.62199402
477882.13099670;6771722.48699951;256.38699341
477881.62500000;6771722.06698608;255.62600708
477874.16899872;6771719.77301025;256.23001099
478033.61500168;6771734.01501465;255.86700439
478143.52250671;6771656.57598877;255.45100403
478052.46900177;6771734.56900024;256.04800415
477916.48799896;6771730.28799438;256.25201416
478025.59199905;6771734.09298706;256.24798584
478046.48799896;6771733.98001099;255.95199585
477960.80199814;6771734.82998657;256.03201294
478040.54999924;6771734.16000366;255.94299316
477995.11499977;6771734.51901245;255.83999634
477856.47900391;6771715.90200806;255.89199829
478076.06990051;6771733.54000854;255.98199463
478138.92520142;6771682.31900024;255.77600098
478034.86800003;6771734.00100708;255.89100647
478138.99710083;6771674.55499268;255.86399841
477920.54900360;6771730.84298706;255.83999634
477918.56700134;6771730.11199951;255.98199463
478142.43679810;6771668.43899536;256.06201172
477912.96099854;6771729.27499390;255.56700134
477911.06999969;6771729.48199463;255.67100525
477913.65699768;6771729.50299072;256.24899292
478142.38740540;6771664.56900024;255.86099243
477890.54199982;6771724.83999634;255.78599548
477910.06099701;6771729.92498779;255.98800659
477889.48500061;6771724.49899292;256.09899902
478142.01849365;6771661.62399292;255.78799438
478064.90409851;6771733.23098755;255.55599976
478093.23010254;6771733.48901367;255.86999512
477982.49900055;6771734.84500122;255.68099976
477869.61900330;6771718.72500610;256.13101196
478060.22499847;6771733.53100586;256.08700562
478143.10940552;6771653.29800415;256.13400269
478029.23500061;6771734.03900146;256.03201294
478090.14710236;6771733.35998535;256.41699219
478146.96009827;6771646.91598511;256.28100586
478053.37599945;6771734.43499756;256.13500977
478089.36710358;6771733.39599609;256.27301025
477939.46200180;6771709.53500366;222.28900146
478026.65099907;6771733.95700073;256.00698853
477972.83300018;6771734.93701172;255.78599548
478051.61899948;6771734.17001343;256.13900757
478024.66200066;6771733.87200928;255.83399963
478137.36289978;6771691.03201294;255.87699890
477865.28300476;6771717.63500977;255.73899841
478021.74900055;6771734.40100098;255.64599609
478144.62409973;6771642.46398926;256.04800415
477968.83099937;6771734.68399048;255.63900757
478086.53720093;6771733.23199463;256.26300049
478138.01870728;6771689.54098511;256.23800659
478144.40220642;6771640.01400757;255.97300720
477968.32999992;6771735.08401489;256.19699097
478078.42590332;6771734.07199097;255.86999512
477967.32699966;6771734.97698975;255.98500061
478018.37100029;6771734.65499878;255.96200562
478144.46090698;6771637.75299072;255.94799805
477965.97999954;6771734.85998535;255.93600464
478017.55200005;6771734.72100830;255.84399414
478045.75799942;6771734.28900146;255.70899963
478044.23400116;6771733.68701172;255.99800110
478138.37950134;6771683.61700439;256.16799927
477940.50199890;6771709.66198730;222.18299866
478043.22800064;6771734.08599854;256.15100098
477996.94199991;6771734.75299072;255.89599609
478105.80359650;6771676.14199829;222.30400085
478143.97659302;6771631.08401489;256.26400757
477994.44500017;6771734.73800659;256.33599854
478139.55250549;6771680.41101074;255.94500732
478138.97000122;6771678.29199219;255.95700073
477990.87600040;6771735.07901001;255.96299744
478139.03149414;6771677.55398560;255.96800232
477989.85000038;6771735.09201050;256.00201416
477854.50900269;6771715.97500610;256.54299927
477988.10900021;6771734.70098877;256.07101440
478138.61929321;6771677.01300049;255.60200500
477853.63999939;6771715.10101318;255.99800110
477985.56400013;6771734.67001343;255.87899780
478036.36999893;6771734.60699463;256.07699585
477842.24699402;6771711.89300537;256.21701050
478069.26550293;6771733.55499268;255.96699524
477984.14500046;6771734.65399170;255.87199402
477950.84600067;6771734.89898682;256.10198975
477924.80799866;6771707.81201172;222.35600281
478029.33699989;6771712.05200195;222.30099487
477797.91299438;6771682.36700439;255.64199829
477794.50799561;6771675.12799072;256.16198730
477794.02699280;6771673.36801147;254.85600281
478104.68869781;6771733.16900635;255.80099487
478136.21350098;6771705.41900635;255.52299500
478144.20309448;6771634.57901001;255.69500732
477941.73199844;6771711.32699585;222.46099854
477851.47700500;6771713.68200684;255.72900391
478145.21569824;6771626.05801392;255.48699951
478144.76649475;6771627.70700073;255.55000305
478144.74200439;6771626.64001465;255.28399658
477846.55900574;6771712.34100342;256.01098633
477914.92299652;6771705.95999146;222.57600403
478145.37049866;6771625.23999023;255.74899292
477830.50599670;6771710.49899292;255.44200134
478124.48429871;6771732.98699951;255.20799255
477826.58000183;6771709.07598877;255.74600220
477900.79399872;6771727.18499756;255.73399353
478118.42179871;6771733.00698853;255.15299988
478136.26849365;6771701.78100586;255.68299866
477834.87199402;6771710.83401489;255.81300354
477792.08399963;6771670.79400635;256.17098999
477885.42299652;6771723.11898804;255.97900391
477863.02699280;6771717.46499634;256.06298828
477850.78900146;6771714.01800537;255.62899780
477845.71299744;6771711.82000732;255.67300415
477844.34500122;6771711.62899780;255.88699341
477842.96000671;6771711.42300415;255.82200623
477841.63299561;6771711.62399292;255.79299927
477930.86399841;6771710.49499512;222.81700134
477841.06900024;6771711.99798584;255.69799805
477839.25700378;6771712.42800903;255.81399536
477837.21899414;6771711.63598633;256.28201294
477835.96400452;6771710.99398804;255.71699524
477832.86300659;6771710.91699219;255.76300049
477831.23199463;6771710.93200684;255.80900574
477827.96699524;6771709.37298584;255.56199646
478123.09700012;6771732.68499756;255.93299866
478121.06089783;6771732.84600830;254.75399780
477823.48599243;6771708.10998535;255.64199829
478120.45809937;6771732.81100464;256.05801392
477820.84300232;6771706.52999878;255.88499451
477818.93699646;6771705.94601440;255.41200256
477901.83899689;6771727.49899292;256.34799194
477817.77499390;6771705.60400391;256.01599121
478133.91259766;6771728.99099731;255.50100708
478144.57550049;6771628.89300537;255.83900452
478134.06649780;6771727.17999268;255.37600708
477816.05000305;6771704.56500244;256.00601196
478134.16740417;6771725.38400269;255.98800659
478145.15139771;6771626.80398560;256.12600708
478134.23300171;6771723.85101318;254.91400146
477814.91600037;6771703.86099243;255.97599792
478117.57659912;6771732.83300781;255.50999451
478134.90789795;6771715.56298828;256.06201172
477814.00900269;6771703.61099243;255.46699524
477812.12800598;6771703.45999146;255.24000549
478135.24870300;6771713.39300537;255.50000000
478114.11550140;6771733.05999756;255.81700134
478112.75270081;6771733.16500854;255.78700256
477808.76100159;6771701.84600830;255.52499390
478135.10969543;6771711.95800781;255.75000000
478145.97369385;6771620.94900513;255.71899414
477807.93200684;6771701.50299072;256.07000732
478110.32520294;6771732.95800781;255.48800659
477806.85600281;6771700.49899292;255.60299683
477946.01499939;6771734.68200684;255.39900208
478104.90059662;6771683.76998901;222.17799377
477944.04299927;6771734.99301147;256.06298828
477805.12699890;6771697.67001343;255.79499817
478135.77330017;6771707.35998535;255.28799438
477941.47999954;6771734.93099976;255.39599609
477940.84600067;6771735.35699463;256.23300171
478016.18700027;6771734.32000732;255.68800354
477938.86700058;6771734.79000854;255.56900024
477938.04499817;6771734.76699829;255.43200684
477937.15100098;6771734.57199097;255.81700134
478112.08139801;6771657.98098755;222.87800598
478134.17219543;6771722.37701416;255.24000549
478098.99150085;6771733.07598877;255.30000305
477801.30700684;6771691.63598633;256.42898560
478134.41810608;6771721.74700928;255.88900757
478097.33540344;6771733.22299194;256.12399292
477935.98300171;6771734.17599487;255.68899536
477934.73699951;6771734.10699463;255.46600342
477801.02000427;6771690.10000610;255.40299988
478134.66979980;6771718.84298706;256.05599976
478007.60500002;6771734.06698608;255.81900024
478083.18409729;6771733.67300415;255.70599365
478006.30499983;6771734.07000732;255.80099487
477800.44099426;6771689.05801392;255.95199585
477933.21099854;6771733.72900391;255.72300720
478080.95570374;6771733.51901245;255.60499573
477929.01200104;6771732.91000366;255.44700623
477799.11799622;6771684.67700195;255.16600037
478136.28520203;6771698.49200439;254.98899841
478000.97600001;6771734.23001099;255.48699951
477998.93400002;6771734.40899658;255.78599548
477924.44000244;6771731.95800781;256.03298950
477796.97399902;6771678.67800903;255.02600098
478142.85130310;6771659.81100464;255.58099365
477974.91900063;6771734.68600464;255.26600647
478022.08699989;6771734.22601318;255.02000427
477873.02999878;6771719.72500610;255.97200012
477960.81499863;6771734.55899048;255.32200623
478069.75759888;6771733.76998901;255.63999939
478072.62259674;6771733.56100464;255.53700256
477866.22000122;6771717.59600830;255.86599731
477897.62000275;6771726.55599976;255.61099243
477923.67299652;6771731.44799805;255.58500671
478135.91290283;6771706.27499390;255.60000610
478087.33059692;6771733.28100586;255.89399719
478142.69889832;6771660.85998535;255.61000061
478136.36050415;6771699.95901489;255.83200073
478136.57119751;6771697.56100464;255.74099731
478143.45509338;6771652.17401123;255.52299500
478041.42300034;6771711.72900391;222.84399414
477886.54599762;6771723.02899170;255.68400574
478144.48260498;6771641.07800293;255.47599792
478106.50189972;6771732.74398804;255.86700439
478096.27030182;6771733.61801147;256.08999634
478027.88599968;6771733.82699585;256.11898804
478094.07849884;6771733.29400635;255.69999695
477941.99200058;6771712.20800781;222.51199341
478092.13320160;6771733.48498535;255.74400330
478023.28700066;6771734.22399902;255.93600464
477974.08499908;6771735.24499512;255.87300110
478022.82900047;6771733.99200439;255.42900085
478139.07400513;6771679.27398682;255.90600586
477973.39900017;6771735.21200562;255.84300232
478142.19090271;6771663.89001465;255.88000488
478056.39300156;6771733.74899292;255.34399414
477970.77400017;6771734.67999268;256.08898926
478020.29999924;6771734.92199707;255.80099487
477883.21800232;6771722.67800903;256.35699463
477915.47299957;6771729.79901123;255.62800598
478054.25799942;6771733.99499512;255.87399292
478074.09300232;6771733.80999756;255.56100464
477997.40199995;6771734.86801147;255.57899475
477914.64399719;6771729.66000366;256.08099365
477996.08999991;6771734.49398804;255.71600342
478146.11070251;6771645.19198608;256.16699219
478145.78370667;6771644.01599121;256.01098633
478050.70100021;6771734.14801025;255.72599792
477993.16499996;6771734.95901489;256.17599487
477963.74100113;6771735.42700195;255.94200134
478071.25150299;6771733.61599731;255.98800659
477993.75400019;6771734.48300171;255.99600220
477963.56900024;6771735.02398682;255.88600159
478112.80760193;6771655.90600586;222.60600281
477877.68299866;6771721.14001465;255.82899475
478049.67900085;6771734.19000244;255.73599243
478145.29299927;6771643.02099609;255.94200134
478048.78099823;6771734.32299805;255.72700500
478141.17990112;6771671.10800171;256.09698486
478140.14579773;6771671.74700928;255.74800110
477942.81299973;6771712.51599121;222.97300720
477906.53700256;6771728.93899536;256.17599487
478144.14559937;6771636.91299438;255.89799500
477989.18299961;6771734.57901001;255.75500488
477873.85500336;6771719.14300537;255.18699646
477958.31700134;6771734.67199707;255.84500122
477905.56600189;6771728.10501099;255.66600037
478140.59039307;6771671.41699219;255.59100342
478042.21799850;6771734.27499390;255.75199890
478144.26640320;6771633.89099121;256.07800293
477872.07399750;6771718.99301147;255.63299561
477957.02899933;6771734.92199707;255.68699646
478039.82899857;6771733.95599365;255.83299255
478003.37899995;6771711.58099365;222.36700439
477955.93099976;6771734.78698730;255.47799683
478064.16950226;6771733.35299683;255.44900513
477867.73699951;6771717.98498535;255.47700500
477898.56800079;6771726.56900024;255.85299683
478061.67350006;6771733.56600952;256.23300171
478046.69200134;6771710.25698853;222.18800354
477983.23900032;6771734.75201416;255.49299622
478034.22000122;6771734.13800049;255.64199829
477953.26200104;6771735.01300049;255.75799561
477864.43600464;6771717.73999023;255.58599854
478141.67120361;6771669.91900635;255.59500122
477863.81100464;6771717.67498779;256.06100464
478141.97030640;6771669.33999634;255.53799438
478032.61999893;6771734.09899902;255.60299683
477978.49399948;6771735.17700195;255.99800110
478057.45999908;6771733.52600098;255.61799622
477859.82499695;6771716.92001343;255.89500427
478031.07099915;6771733.91000366;255.75399780
478060.56600189;6771733.41598511;255.39199829
477894.12799835;6771725.52200317;256.03799438
478030.40900040;6771734.10400391;255.78399658
477857.80000305;6771716.20401001;255.91999817
478047.50799942;6771710.19799805;222.47200012
477891.52999878;6771724.34899902;255.16400146
478142.54539490;6771667.08599854;256.20098877
477855.09500122;6771715.23300171;255.62500000
477919.90100098;6771730.56900024;255.52200317
478146.23109436;6771647.27398682;255.43400574
477906.26499939;6771727.77801514;255.10800171
478025.85300064;6771733.56799316;255.59899902
478023.70800018;6771733.95300293;255.31500244
477901.87899780;6771727.32000732;255.40299988
477888.77300262;6771723.78298950;255.12800598
477974.17099953;6771734.84298706;255.34300232
478071.36959839;6771733.11300659;255.13999939
477922.56500244;6771707.10699463;222.90600586
478039.18199921;6771733.85998535;254.91900635
477965.38100052;6771734.71499634;255.39799500
477988.34300041;6771734.48400879;255.35800171
477962.09400177;6771734.70498657;255.28500366
478139.62379456;6771672.73098755;255.61500549
478141.24549866;6771670.51599121;255.54800415
477980.43000031;6771734.89401245;255.04499817
477979.42000008;6771734.83499146;255.52099609
477856.17399597;6771715.28201294;255.28799438
478055.31800079;6771733.62701416;255.41999817
478105.96420288;6771732.67898560;255.65899658
477883.70200348;6771722.66000366;255.40400696
478142.08900452;6771663.37200928;255.92999268
478026.96199989;6771733.50000000;255.51899719
478146.59269714;6771646.15100098;255.40299988
477879.42199707;6771720.98001099;255.73699951
477876.14499664;6771720.35299683;255.91900635
477975.71899986;6771734.97500610;255.70300293
478077.01609802;6771733.45098877;254.41799927
478075.13909912;6771733.62701416;255.50500488
477918.97200012;6771730.01199341;255.27999878
477916.97100067;6771730.23300171;255.76100159
477971.85199928;6771734.63400269;255.43899536
478041.18500137;6771734.10000610;255.60400391
478144.18229675;6771633.33200073;255.36599731
478070.35030365;6771733.45999146;255.40199280
478137.82820129;6771688.92599487;255.21400452
478138.25630188;6771688.63198853;255.90199280
477991.85000038;6771734.61999512;255.40100098
477994.41200018;6771734.29199219;255.40199280
478143.78070068;6771631.73300171;255.59899902
477966.49499893;6771734.82699585;255.44000244
478137.95239258;6771686.35800171;255.07499695
478037.24000168;6771734.35900879;255.53100586
478137.91949463;6771685.68099976;255.58900452
477990.97599983;6771734.57598877;255.24400330
478137.96879578;6771685.05398560;255.31300354
477964.28699875;6771735.11300659;255.70700073
477934.01599884;6771711.31201172;222.82699585
477990.08199978;6771734.77700806;255.44299316
477910.29000092;6771729.23199463;255.37500000
478137.99989319;6771684.40600586;255.87100220
477963.36399841;6771734.95700073;255.31399536
